# .PCD v0.7 - Point Cloud Data file format
VERSION 0.7
FIELDS x y z intensity
SIZE 4 4 4 4 
TYPE F F F F 
COUNT 1 1 1 1 
WIDTH 934
HEIGHT 1
VIEWPOINT 0 0 0 1 0 0 0
POINTS 934
DATA ascii
19.966635 -7.277951 -0.929358 0.26274511218070984
19.974499 -7.268076 -0.899181 0.26274511218070984
19.964325 -7.247396 -0.869960 0.2549019753932953
19.964972 -7.233925 -0.839775 0.2549019753932953
19.961176 -7.216301 -0.809560 0.2549019753932953
19.954882 -7.197016 -0.779337 0.2549019753932953
19.959414 -7.184927 -0.749149 0.2549019753932953
19.947292 -7.161753 -0.719906 0.2549019753932953
19.931845 -7.136366 -0.690652 0.25882354378700256
19.927216 -7.118188 -0.660434 0.25882354378700256
19.941458 -7.111368 -0.629263 0.26274511218070984
19.939325 -7.094851 -0.599053 0.2705882489681244
19.957731 -7.090797 -0.567895 0.26274511218070984
19.962816 -7.077875 -0.537693 0.25882354378700256
19.968731 -7.065520 -0.506494 0.2666666805744171
19.966320 -7.047616 -0.476267 0.2705882489681244
19.969740 -7.033587 -0.446060 0.2823529541492462
19.965666 -7.014576 -0.415828 0.250980406999588
19.887487 -6.946249 -0.389352 0.20392157137393951
19.876472 -6.921423 -0.359081 0.19607843458652496
19.834927 -6.877491 -0.329725 0.0235294122248888
20.036789 -6.993087 -0.292140 0.07058823853731155
20.059078 -6.990415 -0.260979 0.14509804546833038
20.073879 -6.982750 -0.230794 0.08235294371843338
20.037048 -6.940752 -0.201438 0.003921568859368563
26.833103 -10.649183 0.402938 0.007843137718737125
26.822901 -10.659076 0.394750 0.007843137718737125
26.830750 -10.683351 0.385471 0.007843137718737125
26.833599 -10.704318 0.377209 0.0117647061124444
26.844778 -10.730807 0.367919 0.04313725605607033
26.841518 -10.746513 0.359693 0.13725490868091583
26.834646 -10.758620 0.351494 0.1764705926179886
26.819445 -10.765190 0.343323 0.16078431904315948
26.814516 -10.779789 0.335102 0.16862745583057404
26.802090 -10.789420 0.327905 0.16470588743686676
26.791054 -10.798759 0.319721 0.13725490868091583
26.777517 -10.806437 0.311544 0.12156862765550613
26.741213 -10.797796 0.304458 0.07058823853731155
26.716850 -10.798279 0.296317 0.003921568859368563
20.755157 -6.343822 0.399462 0.019607843831181526
20.753626 -6.378569 0.383993 0.0313725508749485
20.752089 -6.413329 0.369523 0.08235294371843338
20.741116 -6.440601 0.354101 0.09803921729326248
20.713484 -6.456816 0.339733 0.10980392247438431
20.683908 -6.470524 0.324388 0.07058823853731155
20.620453 -6.459345 0.311186 0.003921568859368563
19.811544 -6.894138 -0.059046 0.0941176488995552
19.914089 -6.998142 -0.069859 0.21960784494876862
19.981934 -7.080283 -0.080573 0.20392157137393951
19.947351 -7.094315 -0.092950 0.16862745583057404
19.867533 -7.080649 -0.107209 0.29019609093666077
19.855433 -7.109640 -0.118660 0.27450981736183167
19.836954 -7.135575 -0.131106 0.24705882370471954
19.787661 -7.141030 -0.143450 0.250980406999588
19.690626 -7.117140 -0.156669 0.1411764770746231
19.581938 -7.085486 -0.170849 0.1411764770746231
22.204229 -9.009609 -0.182881 0.003921568859368563
22.237337 -9.059127 -0.189354 0.20000000298023224
22.313189 -9.134667 -0.194937 0.250980406999588
22.303560 -9.158148 -0.203301 0.29411765933036804
22.300587 -9.186069 -0.210687 0.21568627655506134
22.363667 -9.251922 -0.216212 0.13725490868091583
22.349314 -9.273479 -0.223576 0.18039216101169586
22.323860 -9.286443 -0.231888 0.13725490868091583
22.288145 -9.294969 -0.241198 0.2549019753932953
22.225224 -9.286615 -0.250435 0.19607843458652496
22.189505 -9.295156 -0.258745 0.2078431397676468
22.165442 -9.311444 -0.267093 0.2705882489681244
22.131939 -9.320258 -0.275395 0.2549019753932953
22.022957 -9.287260 -0.286558 0.16470588743686676
21.896767 -9.244009 -0.298681 0.09803921729326248
4.114876 -0.038837 -1.231782 0.0235294122248888
4.323163 -0.224060 -1.235087 0.019607843831181526
4.684339 -0.488204 -1.231595 0.027450980618596077
4.962820 -0.706940 -1.230956 0.0235294122248888
5.855385 -1.382008 -1.222976 0.019607843831181526
6.227507 -1.707336 -1.227233 0.019607843831181526
6.529822 -1.929975 -1.222515 0.019607843831181526
6.727527 -2.094992 -1.223611 0.0235294122248888
6.805640 -2.199650 -1.229566 0.019607843831181526
7.080192 -2.402637 -1.224740 0.03529411926865578
7.027060 -2.439157 -1.237517 0.03921568766236305
7.295503 -2.636883 -1.232655 0.03921568766236305
7.439087 -2.769515 -1.234620 0.03921568766236305
7.633166 -2.927353 -1.233640 0.03529411926865578
7.800600 -3.071084 -1.232620 0.03529411926865578
7.928353 -3.193212 -1.233533 0.03529411926865578
8.016159 -3.295942 -1.237409 0.03529411926865578
8.186914 -3.438296 -1.235353 0.03529411926865578
8.373487 -3.587560 -1.233301 0.03529411926865578
8.482086 -3.696957 -1.234151 0.03529411926865578
8.655614 -3.838752 -1.232072 0.03529411926865578
8.715936 -3.923215 -1.235857 0.0313725508749485
8.897495 -4.065580 -1.231742 0.0313725508749485
8.964195 -4.153099 -1.234533 0.0313725508749485
9.130495 -4.287706 -1.231398 0.0313725508749485
9.200799 -4.375219 -1.234169 0.0313725508749485
9.226711 -4.442799 -1.238921 0.03921568766236305
9.307827 -4.533929 -1.239680 0.03529411926865578
9.395047 -4.626716 -1.240427 0.03921568766236305
9.518052 -4.736132 -1.238198 0.03921568766236305
9.547283 -4.802333 -1.241913 0.04313725605607033
9.611188 -4.883225 -1.242632 0.04313725605607033
9.807708 -5.024778 -1.235423 0.04313725605607033
9.849976 -5.094857 -1.238117 0.04313725605607033
9.854783 -5.147227 -1.241783 0.04313725605607033
9.921182 -5.226175 -1.242463 0.04313725605607033
10.016427 -5.319543 -1.240173 0.04313725605607033
10.087539 -5.400440 -1.239852 0.04313725605607033
10.192495 -5.495460 -1.237531 0.04313725605607033
10.146252 -5.523454 -1.244156 0.04313725605607033
10.299194 -5.638428 -1.237836 0.04313725605607033
10.312034 -5.691367 -1.239465 0.04313725605607033
10.396728 -5.775321 -1.237109 0.03921568766236305
10.381825 -5.815792 -1.240727 0.03921568766236305
10.452093 -5.892542 -1.239355 0.03921568766236305
10.493227 -5.957116 -1.238983 0.03921568766236305
10.555451 -6.029706 -1.238601 0.03921568766236305
10.534719 -6.066301 -1.242199 0.03921568766236305
10.632163 -6.152760 -1.237806 0.03921568766236305
10.672737 -6.214561 -1.237400 0.03921568766236305
10.643404 -6.247841 -1.241002 0.03921568766236305
10.623219 -6.283617 -1.243586 0.03921568766236305
10.718719 -6.367583 -1.239171 0.03921568766236305
10.035796 -6.130260 -1.283790 0.04313725605607033
10.076915 -6.191256 -1.281371 0.04313725605607033
10.087523 -6.240328 -1.281961 0.04313725605607033
10.750046 -6.551686 -1.241433 0.03921568766236305
10.768139 -6.602148 -1.241001 0.03921568766236305
10.107692 -6.379796 -1.283695 0.03921568766236305
10.786296 -6.695872 -1.241140 0.03921568766236305
10.154691 -6.484337 -1.280818 0.03921568766236305
10.129789 -6.518178 -1.283403 0.03921568766236305
10.134290 -6.561990 -1.283957 0.03921568766236305
10.727439 -6.836794 -1.246328 0.03921568766236305
10.140226 -6.648811 -1.283073 0.03921568766236305
10.110876 -6.678512 -1.284627 0.03921568766236305
10.108154 -6.718740 -1.284173 0.03921568766236305
10.724597 -6.998255 -1.244478 0.03921568766236305
10.127397 -6.807235 -1.281237 0.03921568766236305
10.055044 -6.820328 -1.284809 0.03921568766236305
10.071740 -6.867476 -1.283340 0.03921568766236305
10.022139 -6.889703 -1.285907 0.03921568766236305
10.067400 -6.946283 -1.281406 0.03921568766236305
10.031381 -6.971568 -1.281938 0.03921568766236305
9.981494 -6.992423 -1.283488 0.03921568766236305
9.993747 -7.035417 -1.281989 0.03921568766236305
9.894482 -7.036609 -1.286551 0.03921568766236305
9.913108 -7.082673 -1.283057 0.03921568766236305
9.871537 -7.105469 -1.283587 0.03921568766236305
10.471308 -7.363097 -1.243693 0.03921568766236305
9.803933 -7.156602 -1.283634 0.03921568766236305
9.783448 -7.187427 -1.283155 0.03921568766236305
9.723008 -7.202485 -1.283686 0.04313725605607033
9.638717 -7.210060 -1.286249 0.04313725605607033
10.323915 -7.490934 -1.241193 0.03921568766236305
9.611052 -7.273381 -1.283238 0.04313725605607033
9.528146 -7.280677 -1.285791 0.04313725605607033
9.500159 -7.306533 -1.284286 0.04313725605607033
10.070512 -7.543375 -1.246280 0.03921568766236305
9.383991 -7.338596 -1.284348 0.04313725605607033
10.041996 -7.602563 -1.241218 0.03921568766236305
9.953258 -7.605999 -1.242752 0.03921568766236305
9.889490 -7.618829 -1.244272 0.03529411926865578
9.847905 -7.638047 -1.242754 0.03529411926865578
9.740580 -7.635116 -1.245305 0.03529411926865578
8.993316 -7.415127 -1.286507 0.03529411926865578
8.905406 -7.419115 -1.288043 0.03529411926865578
8.795029 -7.415356 -1.290600 0.03921568766236305
9.580340 -7.713645 -1.239223 0.027450980618596077
9.510187 -7.723447 -1.239738 0.027450980618596077
9.391207 -7.716372 -1.242299 0.027450980618596077
9.184847 -7.679952 -1.249952 0.03529411926865578
9.261149 -7.736819 -1.241284 0.027450980618596077
9.190710 -7.745248 -1.240782 0.027450980618596077
9.051477 -7.730698 -1.244356 0.027450980618596077
8.183821 -7.478651 -1.289796 0.0313725508749485
8.094243 -7.481545 -1.290326 0.0313725508749485
8.714218 -7.714200 -1.248991 0.0313725508749485
7.889556 -7.478772 -1.291414 0.0313725508749485
7.789156 -7.478076 -1.291957 0.0313725508749485
7.706504 -7.483207 -1.290479 0.0313725508749485
8.411913 -7.739094 -1.244981 0.0313725508749485
8.307348 -7.735630 -1.245510 0.0313725508749485
8.193628 -7.729683 -1.246056 0.0313725508749485
8.125123 -7.737014 -1.244530 0.0313725508749485
7.183956 -7.470909 -1.291188 0.03529411926865578
7.091035 -7.471616 -1.289708 0.03529411926865578
7.682710 -7.685411 -1.251279 0.0313725508749485
7.664122 -7.707992 -1.244679 0.0313725508749485
7.488820 -7.682677 -1.248308 0.0313725508749485
7.382304 -7.676733 -1.247815 0.0313725508749485
7.281620 -7.674664 -1.247341 0.0313725508749485
7.180649 -7.671222 -1.245850 0.03529411926865578
7.027532 -7.652281 -1.247441 0.03529411926865578
26.630161 -13.650718 -0.180923 0.007843137718737125
26.673712 -13.670125 -0.176939 0.027450980618596077
26.678982 -13.678464 -0.175020 0.054901961237192154
26.676483 -13.684040 -0.173108 0.0784313753247261
26.676487 -13.691263 -0.172203 0.0941176488995552
26.686192 -13.700165 -0.169267 0.10588234663009644
26.673708 -13.702691 -0.168369 0.11372549086809158
26.678699 -13.709643 -0.166433 0.11764705926179886
26.677866 -13.716328 -0.164526 0.11372549086809158
26.675919 -13.721070 -0.162599 0.12156862765550613
26.661219 -13.723323 -0.161710 0.11372549086809158
26.678411 -13.733600 -0.158751 0.0941176488995552
26.665096 -13.735573 -0.157850 0.06666667014360428
26.675354 -13.743641 -0.154900 0.0313725508749485
26.700315 -13.756680 -0.151935 0.0117647061124444
26.840948 -13.803476 -0.142780 0.054901961237192154
26.832899 -13.806565 -0.140865 0.1411764770746231
26.820969 -13.808258 -0.139953 0.21568627655506134
26.825682 -13.813825 -0.138000 0.22745098173618317
26.810696 -13.814704 -0.136094 0.239215686917305
26.812634 -13.820828 -0.134164 0.26274511218070984
26.802092 -13.822243 -0.133241 0.27450981736183167
26.814568 -13.830585 -0.130282 0.2549019753932953
26.825377 -13.837820 -0.127318 0.23529411852359772
26.816502 -13.840342 -0.126400 0.21960784494876862
26.830364 -13.848405 -0.123430 0.23137255012989044
26.839787 -13.855920 -0.120477 0.24313725531101227
26.825359 -13.855952 -0.119557 0.23137255012989044
26.826181 -13.860151 -0.116608 0.23137255012989044
26.820906 -13.862681 -0.114670 0.24705882370471954
26.818678 -13.866037 -0.112727 0.23137255012989044
26.820339 -13.870776 -0.110780 0.2235294133424759
26.825052 -13.876344 -0.108827 0.2235294133424759
26.818108 -13.877765 -0.106884 0.2235294133424759
26.831139 -13.885276 -0.103911 0.21960784494876862
26.829468 -13.887800 -0.101954 0.22745098173618317
26.834726 -13.892547 -0.098987 0.22745098173618317
26.828615 -13.894523 -0.097047 0.21960784494876862
26.831663 -13.898982 -0.095089 0.21176470816135406
26.830824 -13.902061 -0.093134 0.21960784494876862
26.828314 -13.904045 -0.090174 0.21176470816135406
26.825256 -13.906849 -0.088227 0.20000000298023224
26.840225 -13.913246 -0.085229 0.19607843458652496
26.831064 -13.914395 -0.083295 0.1921568661928177
26.836882 -13.918296 -0.081314 0.18431372940540314
26.826054 -13.918337 -0.079374 0.1921568661928177
26.834919 -13.923079 -0.076388 0.20000000298023224
26.822426 -13.922013 -0.074442 0.20392157137393951
26.829912 -13.927021 -0.072467 0.21176470816135406
26.831007 -13.929001 -0.069487 0.2078431397676468
26.835440 -13.933182 -0.067517 0.2078431397676468
26.830437 -13.933491 -0.065549 0.21568627655506134
26.829313 -13.935198 -0.062577 0.21176470816135406
26.823757 -13.936339 -0.060623 0.21176470816135406
26.824026 -13.937753 -0.058640 0.21176470816135406
26.823734 -13.940011 -0.055671 0.21960784494876862
26.824003 -13.941424 -0.053688 0.21176470816135406
26.822886 -13.943117 -0.051716 0.21960784494876862
26.822315 -13.943989 -0.048731 0.22745098173618317
26.821196 -13.945680 -0.046759 0.21960784494876862
26.811476 -13.944056 -0.044791 0.23137255012989044
26.814791 -13.946310 -0.041802 0.22745098173618317
26.813395 -13.946616 -0.039813 0.23137255012989044
26.815323 -13.949148 -0.036836 0.22745098173618317
26.816977 -13.950281 -0.034842 0.23137255012989044
26.807257 -13.948657 -0.032873 0.23137255012989044
26.821110 -13.953129 -0.028856 0.23137255012989044
26.816658 -13.952606 -0.026873 0.239215686917305
26.809158 -13.951257 -0.024896 0.23529411852359772
26.819130 -13.954333 -0.021882 0.23137255012989044
26.815514 -13.954365 -0.019902 0.239215686917305
26.810232 -13.953289 -0.017917 0.23529411852359772
26.817986 -13.956092 -0.014911 0.23137255012989044
26.807985 -13.953081 -0.012926 0.23529411852359772
26.806581 -13.953400 -0.009937 0.23529411852359772
26.811010 -13.953975 -0.007921 0.22745098173618317
26.801838 -13.951530 -0.004938 0.23137255012989044
26.805706 -13.952951 -0.001935 0.23137255012989044
26.802643 -13.952150 0.000059 0.23137255012989044
26.801800 -13.951624 0.002061 0.23529411852359772
26.811493 -13.953314 0.005092 0.21960784494876862
26.810642 -13.952801 0.008095 0.2235294133424759
26.803694 -13.950617 0.010085 0.2235294133424759
26.814774 -13.952028 0.013128 0.2235294133424759
26.805607 -13.949572 0.015110 0.23137255012989044
26.817518 -13.951536 0.018150 0.21960784494876862
26.803633 -13.947144 0.020132 0.21960784494876862
26.808611 -13.946900 0.023163 0.21960784494876862
26.816088 -13.948302 0.025186 0.21960784494876862
26.821064 -13.948058 0.028217 0.2235294133424759
26.809399 -13.943940 0.030207 0.21176470816135406
26.809935 -13.943148 0.033221 0.21960784494876862
26.818802 -13.944271 0.035255 0.21176470816135406
26.819059 -13.942092 0.038286 0.21960784494876862
26.807392 -13.937974 0.040276 0.21960784494876862
26.816807 -13.938278 0.043324 0.21960784494876862
26.804308 -13.933607 0.045317 0.2235294133424759
26.816774 -13.934739 0.048371 0.21176470816135406
26.816198 -13.932007 0.051405 0.21960784494876862
26.802870 -13.926783 0.053401 0.2235294133424759
26.819220 -13.929296 0.056458 0.21960784494876862
26.810326 -13.924619 0.058471 0.21960784494876862
26.812809 -13.922701 0.060510 0.21176470816135406
26.806129 -13.918313 0.063532 0.21568627655506134
26.817762 -13.918891 0.066588 0.21960784494876862
26.812756 -13.915597 0.068604 0.21960784494876862
26.813570 -13.912571 0.070649 0.21176470816135406
26.810776 -13.909564 0.073674 0.22745098173618317
26.815479 -13.907920 0.075722 0.22745098173618317
26.813238 -13.904080 0.078760 0.21176470816135406
26.817938 -13.902436 0.080808 0.22745098173618317
26.805708 -13.895558 0.083832 0.2235294133424759
26.815128 -13.895850 0.085880 0.22745098173618317
26.816492 -13.892005 0.088939 0.22745098173618317
26.824245 -13.891189 0.090992 0.21960784494876862
26.805912 -13.882656 0.094005 0.2235294133424759
26.821156 -13.883217 0.096081 0.23137255012989044
26.823360 -13.879913 0.098138 0.23137255012989044
26.814182 -13.873864 0.101167 0.2235294133424759
26.813334 -13.869731 0.103217 0.21960784494876862
26.822468 -13.868649 0.106282 0.23137255012989044
26.817734 -13.863136 0.108329 0.23137255012989044
26.817713 -13.859571 0.111377 0.21176470816135406
26.802988 -13.851019 0.113409 0.21960784494876862
26.819620 -13.851300 0.115497 0.21960784494876862
26.815434 -13.844967 0.118558 0.21568627655506134
26.815418 -13.841389 0.120605 0.21176470816135406
26.806793 -13.834506 0.123649 0.21176470816135406
26.805666 -13.828988 0.125716 0.2078431397676468
26.803150 -13.823749 0.127772 0.20392157137393951
26.805069 -13.819072 0.130845 0.20392157137393951
26.806438 -13.815213 0.132903 0.20392157137393951
26.814461 -13.812191 0.135988 0.1921568661928177
26.801958 -13.803915 0.138029 0.18039216101169586
26.786123 -13.793425 0.140081 0.16862745583057404
26.793592 -13.791236 0.143151 0.1568627506494522
26.781643 -13.782126 0.145206 0.1568627506494522
26.791056 -13.778811 0.147302 0.15294118225574493
26.792147 -13.773568 0.149377 0.14509804546833038
26.778805 -13.764751 0.152421 0.13333334028720856
26.779896 -13.759507 0.154496 0.10588234663009644
26.790142 -13.756746 0.156589 0.0784313753247261
26.779572 -13.747371 0.159656 0.0470588244497776
26.788160 -13.743490 0.160754 0.019607843831181526
26.746244 -13.725269 0.162765 0.007843137718737125
22.053156 -9.298805 0.275513 0.003921568859368563
22.092001 -9.290921 0.270830 0.03529411926865578
22.121132 -9.277781 0.266163 0.0941176488995552
22.128607 -9.250250 0.261568 0.125490203499794
22.124434 -9.218561 0.255963 0.16862745583057404
22.138573 -9.195457 0.251346 0.1725490242242813
22.168541 -9.182858 0.245677 0.1411764770746231
22.203501 -9.173593 0.240991 0.11764705926179886
22.256231 -9.173719 0.235278 0.08627451211214066
22.271488 -9.152542 0.229642 0.062745101749897
22.260647 -9.116438 0.225059 0.0117647061124444
19.643692 -7.086291 0.148512 0.06666667014360428
19.772211 -7.129551 0.140646 0.18039216101169586
19.844379 -7.136545 0.131949 0.21568627655506134
19.889345 -7.126657 0.123326 0.21960784494876862
19.912937 -7.103766 0.114757 0.27843138575553894
19.941246 -7.082809 0.106189 0.2549019753932953
19.912367 -7.025045 0.097793 0.21960784494876862
19.847137 -6.944287 0.087502 0.0941176488995552
20.581226 -6.441883 -0.174849 0.03529411926865578
20.631485 -6.440283 -0.185553 0.0941176488995552
20.673420 -6.433134 -0.197229 0.0784313753247261
20.685648 -6.403840 -0.208776 0.027450980618596077
20.737850 -6.404733 -0.219501 0.01568627543747425
20.772839 -6.391783 -0.230139 0.01568627543747425
20.814220 -6.385468 -0.241829 0.019607843831181526
20.824783 -6.355066 -0.253371 0.01568627543747425
26.938618 -10.943452 -0.049420 0.05098039284348488
26.962225 -10.942231 -0.055274 0.14509804546833038
26.970560 -10.929662 -0.061063 0.13333334028720856
26.984726 -10.920965 -0.066871 0.09019608050584793
26.970028 -10.890652 -0.074551 0.09019608050584793
26.940891 -10.849541 -0.082169 0.13333334028720856
26.921749 -10.815073 -0.089819 0.26274511218070984
26.937859 -10.808869 -0.095649 0.24313725531101227
26.941755 -10.792132 -0.102407 0.27450981736183167
26.973415 -10.798666 -0.108320 0.2235294133424759
26.973150 -10.779161 -0.115064 0.2078431397676468
26.978714 -10.763532 -0.121828 0.24313725531101227
26.977894 -10.744859 -0.128586 0.21176470816135406
26.987066 -10.732829 -0.135377 0.22745098173618317
26.997908 -10.721907 -0.142174 0.22745098173618317
27.001251 -10.706001 -0.148946 0.21568627655506134
26.996546 -10.682329 -0.156660 0.1764705926179886
26.991287 -10.659490 -0.164387 0.1764705926179886
26.984085 -10.634157 -0.172093 0.18431372940540314
26.984097 -10.616038 -0.178854 0.20392157137393951
26.989944 -10.601782 -0.186634 0.1725490242242813
26.988852 -10.581710 -0.194376 0.06666667014360428
14.883176 0.098684 -1.216790 0.03921568766236305
15.247675 -0.160465 -1.213213 0.03529411926865578
15.458404 -0.289597 -1.220763 0.04313725605607033
15.789034 -0.523819 -1.218043 0.04313725605607033
15.532074 -0.245389 -1.262778 0.04313725605607033
15.857988 -0.477676 -1.260058 0.03921568766236305
16.125063 -0.661168 -1.262017 0.03921568766236305
16.371311 -0.827215 -1.263859 0.03529411926865578
16.643099 -1.016275 -1.263865 0.03529411926865578
16.887407 -1.183434 -1.265733 0.03529411926865578
17.131435 -1.352826 -1.266632 0.03529411926865578
17.404610 -1.548842 -1.264722 0.0313725508749485
17.666676 -1.736276 -1.262760 0.0313725508749485
17.921526 -1.920115 -1.260790 0.0313725508749485
18.147234 -2.077331 -1.261629 0.03529411926865578
18.384041 -2.246758 -1.260567 0.0313725508749485
18.607243 -2.405944 -1.259445 0.03529411926865578
18.810743 -2.549601 -1.260227 0.04313725605607033
19.024786 -2.702698 -1.259075 0.04313725605607033
19.210522 -2.833330 -1.260781 0.05098039284348488
19.385427 -2.953162 -1.262405 0.03921568766236305
19.591700 -3.103497 -1.261259 0.03921568766236305
19.788538 -3.246344 -1.261066 0.03921568766236305
19.971489 -3.377560 -1.260795 0.04313725605607033
20.174150 -3.527913 -1.258669 0.03921568766236305
20.358490 -3.662470 -1.257435 0.0470588244497776
20.535887 -3.791213 -1.256163 0.054901961237192154
20.700523 -3.910239 -1.256832 0.0470588244497776
20.878481 -4.041755 -1.255592 0.05882352963089943
21.034782 -4.155259 -1.255234 0.054901961237192154
21.198029 -4.274579 -1.254915 0.062745101749897
21.339897 -4.377274 -1.255493 0.0470588244497776
21.489538 -4.486351 -1.255113 0.05882352963089943
21.622526 -4.580725 -1.256630 0.05098039284348488
21.774391 -4.693681 -1.256289 0.062745101749897
21.900719 -4.783628 -1.257784 0.0784313753247261
22.052298 -4.898829 -1.255474 0.05882352963089943
22.172794 -4.984900 -1.256950 0.05098039284348488
22.325480 -5.102056 -1.253660 0.07450980693101883
22.452639 -5.196174 -1.254206 0.05882352963089943
22.566751 -5.279203 -1.255677 0.05098039284348488
22.702229 -5.382502 -1.253298 0.054901961237192154
22.830769 -5.479972 -1.251880 0.062745101749897
22.949045 -5.569389 -1.252412 0.062745101749897
23.066206 -5.656878 -1.251925 0.05882352963089943
23.178648 -5.742432 -1.251438 0.054901961237192154
23.288038 -5.823541 -1.251909 0.0470588244497776
23.418516 -5.927135 -1.248562 0.06666667014360428
23.537336 -6.019364 -1.246128 0.062745101749897
23.640343 -6.097431 -1.246594 0.07058823853731155
23.736130 -6.168296 -1.247005 0.054901961237192154
23.849403 -6.258023 -1.245569 0.07450980693101883
23.958229 -6.343608 -1.243102 0.06666667014360428
24.047077 -6.408646 -1.244474 0.06666667014360428
24.145636 -6.486190 -1.242957 0.06666667014360428
24.246691 -6.565394 -1.241449 0.0784313753247261
24.333597 -6.631558 -1.241846 0.07058823853731155
24.422440 -6.700227 -1.241266 0.054901961237192154
24.520443 -6.778603 -1.239764 0.08627451211214066
24.606787 -6.845613 -1.239175 0.06666667014360428
24.695911 -6.915668 -1.238612 0.06666667014360428
24.777819 -6.978511 -1.238992 0.0784313753247261
24.857500 -7.041091 -1.238382 0.07058823853731155
24.936071 -7.101732 -1.237752 0.08235294371843338
25.014093 -7.163193 -1.238136 0.09803921729326248
25.079342 -7.211345 -1.239414 0.07058823853731155
25.143213 -7.259765 -1.241703 0.06666667014360428
25.225109 -7.326252 -1.239132 0.06666667014360428
25.292305 -7.376898 -1.240432 0.07058823853731155
25.358109 -7.427837 -1.240744 0.06666667014360428
25.426691 -7.481822 -1.241081 0.05882352963089943
25.498045 -7.538868 -1.240444 0.08235294371843338
25.560522 -7.587579 -1.241744 0.0784313753247261
25.609396 -7.622429 -1.243937 0.07058823853731155
25.674646 -7.674201 -1.244263 0.0784313753247261
25.729904 -7.715712 -1.245508 0.06666667014360428
25.803757 -7.778037 -1.243926 0.054901961237192154
25.848192 -7.808719 -1.247088 0.0470588244497776
25.919538 -7.869396 -1.244498 0.05882352963089943
25.983671 -7.922860 -1.242852 0.0784313753247261
26.034765 -7.961604 -1.244084 0.03921568766236305
26.111383 -8.030620 -1.239575 0.0941176488995552
26.157206 -8.064642 -1.241773 0.062745101749897
26.210796 -8.108665 -1.242061 0.07450980693101883
26.273264 -8.161021 -1.240409 0.07450980693101883
26.315748 -8.192842 -1.241597 0.05882352963089943
26.369339 -8.236864 -1.241884 0.05098039284348488
26.425976 -8.285346 -1.240214 0.054901961237192154
26.476234 -8.327153 -1.240491 0.0470588244497776
26.528154 -8.370083 -1.239773 0.03921568766236305
26.590614 -8.426070 -1.236170 0.06666667014360428
26.627003 -8.452605 -1.239321 0.05098039284348488
26.681416 -8.500826 -1.236659 0.07450980693101883
26.721680 -8.532372 -1.237855 0.04313725605607033
26.782480 -8.587240 -1.235246 0.0784313753247261
26.817469 -8.614079 -1.236409 0.06666667014360428
26.852745 -8.642293 -1.238588 0.0470588244497776
26.912701 -8.696633 -1.233977 0.0784313753247261
26.952415 -8.729014 -1.235187 0.0784313753247261
26.999056 -8.770853 -1.233484 0.07450980693101883
27.028776 -8.792973 -1.235613 0.062745101749897
27.077915 -8.836472 -1.233918 0.07058823853731155
27.130384 -8.885818 -1.230281 0.06666667014360428
27.152893 -8.900710 -1.234355 0.07058823853731155
27.193153 -8.935889 -1.233599 0.07058823853731155
27.222319 -8.958841 -1.235742 0.07058823853731155
27.262579 -8.994020 -1.234986 0.07058823853731155
27.293955 -9.020879 -1.235169 0.06666667014360428
27.340040 -9.063563 -1.232480 0.06666667014360428
27.370312 -9.088469 -1.233643 0.06666667014360428
27.407246 -9.121420 -1.233876 0.062745101749897
27.433907 -9.142725 -1.235011 0.05882352963089943
27.478325 -9.184303 -1.232316 0.06666667014360428
27.522743 -9.225882 -1.229622 0.062745101749897
27.542191 -9.239973 -1.231701 0.062745101749897
27.580503 -9.276277 -1.229970 0.062745101749897
27.613829 -9.305629 -1.230175 0.062745101749897
27.631613 -9.318599 -1.233250 0.062745101749897
27.678246 -9.364083 -1.228594 0.05882352963089943
27.697142 -9.378993 -1.231688 0.054901961237192154
27.735731 -9.416698 -1.228974 0.05882352963089943
27.762665 -9.439401 -1.229126 0.05882352963089943
27.786552 -9.461265 -1.230284 0.05882352963089943
27.816540 -9.488415 -1.229478 0.05882352963089943
27.844028 -9.513905 -1.228664 0.05882352963089943
27.876234 -9.544948 -1.226897 0.05882352963089943
27.900949 -9.567378 -1.227058 0.05882352963089943
27.918180 -9.581181 -1.230146 0.054901961237192154
27.948441 -9.609731 -1.228357 0.054901961237192154
27.973433 -9.633560 -1.227535 0.054901961237192154
30.196907 -12.213154 -0.629362 0.003921568859368563
30.201921 -12.216435 -0.632378 0.003921568859368563
30.215246 -12.228910 -0.631470 0.003921568859368563
30.217211 -12.227747 -0.635444 0.007843137718737125
30.225824 -12.234655 -0.636488 0.0117647061124444
30.233881 -12.242395 -0.637546 0.01568627543747425
30.242495 -12.249304 -0.638590 0.019607843831181526
30.248337 -12.253153 -0.640609 0.019607843831181526
30.250566 -12.253400 -0.642601 0.0235294122248888
30.255854 -12.258080 -0.644634 0.027450980618596077
30.256144 -12.255822 -0.647602 0.03529411926865578
30.260324 -12.258550 -0.650616 0.04313725605607033
30.262274 -12.257410 -0.652590 0.0470588244497776
30.267563 -12.262093 -0.654623 0.054901961237192154
30.269793 -12.262341 -0.656614 0.062745101749897
30.269529 -12.260914 -0.659597 0.06666667014360428
30.270653 -12.259209 -0.662569 0.07450980693101883
30.273439 -12.262229 -0.664594 0.07450980693101883
30.274563 -12.260524 -0.667566 0.07450980693101883
30.280960 -12.267159 -0.668618 0.07058823853731155
30.277647 -12.261287 -0.672559 0.06666667014360428
30.280153 -12.262919 -0.674567 0.06666667014360428
30.280725 -12.262048 -0.677553 0.06666667014360428
30.284342 -12.265635 -0.678580 0.06666667014360428
30.286575 -12.265869 -0.681571 0.07058823853731155
30.289360 -12.268904 -0.682596 0.07450980693101883
30.288263 -12.266923 -0.685577 0.0784313753247261
30.288834 -12.266051 -0.688562 0.08627451211214066
30.292450 -12.269639 -0.689590 0.08627451211214066
30.291353 -12.267659 -0.692570 0.09019608050584793
30.294970 -12.271246 -0.693598 0.09803921729326248
30.293596 -12.267880 -0.696561 0.09803921729326248
30.296385 -12.270901 -0.698586 0.10196079313755035
30.294176 -12.266981 -0.701546 0.10588234663009644
30.295021 -12.267509 -0.703549 0.10588234663009644
30.295031 -12.267482 -0.705549 0.10588234663009644
30.300592 -12.273563 -0.706599 0.10980392247438431
30.297831 -12.270476 -0.709573 0.10588234663009644
30.299780 -12.272956 -0.710596 0.10980392247438431
30.301458 -12.274037 -0.712601 0.10980392247438431
30.298697 -12.270950 -0.715576 0.10588234663009644
30.301479 -12.273984 -0.716600 0.10980392247438431
30.298998 -12.272284 -0.719592 0.10588234663009644
30.299843 -12.272811 -0.721594 0.10588234663009644
30.301794 -12.275291 -0.722617 0.10980392247438431
30.299030 -12.272204 -0.725591 0.10196079313755035
30.298485 -12.273025 -0.726605 0.10196079313755035
30.296553 -12.270491 -0.729583 0.10196079313755035
30.301558 -12.277417 -0.729647 0.09803921729326248
30.293247 -12.268225 -0.733571 0.09803921729326248
30.300194 -12.277644 -0.733658 0.09803921729326248
30.297426 -12.274570 -0.735632 0.09019608050584793
30.298544 -12.276498 -0.736652 0.09019608050584793
30.295229 -12.274244 -0.739641 0.09019608050584793
30.298010 -12.277276 -0.740666 0.08627451211214066
30.291920 -12.271976 -0.743629 0.08235294371843338
30.293316 -12.275289 -0.744666 0.08235294371843338
30.295540 -12.279168 -0.744704 0.07450980693101883
30.293886 -12.278035 -0.746699 0.07058823853731155
30.289457 -12.273841 -0.749668 0.06666667014360428
30.288910 -12.274661 -0.750682 0.062745101749897
30.287535 -12.274913 -0.752693 0.05882352963089943
30.286985 -12.275733 -0.753707 0.054901961237192154
30.286716 -12.277938 -0.754738 0.05098039284348488
30.282564 -12.275145 -0.756724 0.0470588244497776
30.281185 -12.275411 -0.757735 0.04313725605607033
30.279808 -12.275663 -0.759746 0.03529411926865578
30.275375 -12.271483 -0.761716 0.027450980618596077
30.276220 -12.275629 -0.762766 0.0235294122248888
30.284269 -12.287015 -0.760872 0.019607843831181526
30.269573 -12.271161 -0.765744 0.01568627543747425
30.257385 -12.260574 -0.770671 0.01568627543747425
30.258776 -12.263900 -0.770707 0.01568627543747425
30.244358 -12.249432 -0.775596 0.007843137718737125
30.202494 -12.202144 -0.790202 0.003921568859368563
30.267385 -12.281663 -0.768895 0.003921568859368563
28.861820 -10.656309 -1.231176 0.0470588244497776
28.864882 -10.664348 -1.231266 0.0470588244497776
28.867939 -10.672399 -1.230355 0.0470588244497776
28.861568 -10.669331 -1.232350 0.0470588244497776
28.866840 -10.681274 -1.230479 0.0470588244497776
28.873503 -10.692940 -1.228596 0.0470588244497776
28.865471 -10.688751 -1.231585 0.0470588244497776
28.866030 -10.695143 -1.230666 0.0470588244497776
28.862429 -10.695133 -1.231686 0.05098039284348488
28.864933 -10.704018 -1.230790 0.0470588244497776
28.863272 -10.706516 -1.230832 0.0470588244497776
28.861059 -10.709847 -1.230888 0.05098039284348488
28.859676 -10.713731 -1.230947 0.05098039284348488
28.862175 -10.722630 -1.229051 0.0470588244497776
28.859135 -10.725393 -1.230104 0.0470588244497776
28.861353 -10.732904 -1.228191 0.05098039284348488
28.850822 -10.727056 -1.231172 0.0470588244497776
28.852213 -10.733999 -1.230256 0.05098039284348488
28.846394 -10.733717 -1.231284 0.05098039284348488
28.846113 -10.739568 -1.229363 0.05098039284348488
28.835861 -10.735105 -1.232361 0.05098039284348488
28.845844 -10.752629 -1.227537 0.05098039284348488
28.831707 -10.743166 -1.231490 0.05098039284348488
28.838085 -10.757077 -1.227638 0.05098039284348488
28.829214 -10.752348 -1.229625 0.05098039284348488
28.824774 -10.755417 -1.228690 0.05098039284348488
28.821728 -10.758195 -1.228743 0.05098039284348488
28.806753 -10.748192 -1.231694 0.05098039284348488
28.807585 -10.755982 -1.229792 0.05098039284348488
28.806759 -10.762652 -1.228884 0.05098039284348488
28.795668 -10.757649 -1.230879 0.05098039284348488
28.796495 -10.765452 -1.227978 0.05098039284348488
28.785404 -10.760449 -1.229973 0.05098039284348488
28.777914 -10.759073 -1.229996 0.05098039284348488
28.774588 -10.764083 -1.229080 0.05098039284348488
28.759613 -10.754080 -1.232031 0.05098039284348488
28.764324 -10.766883 -1.228173 0.05098039284348488
28.760164 -10.771338 -1.227255 0.05098039284348488
28.748238 -10.765796 -1.228247 0.054901961237192154
28.736315 -10.760239 -1.230240 0.054901961237192154
28.726604 -10.758588 -1.230271 0.054901961237192154
28.720226 -10.759151 -1.230314 0.054901961237192154
28.715782 -10.762235 -1.228379 0.054901961237192154
28.706072 -10.760584 -1.228410 0.054901961237192154
28.696922 -10.758087 -1.229428 0.054901961237192154
28.689152 -10.758943 -1.228482 0.054901961237192154
28.676670 -10.754231 -1.229488 0.05098039284348488
28.667795 -10.753135 -1.229522 0.05098039284348488
28.656139 -10.748990 -1.229532 0.054901961237192154
28.645597 -10.746787 -1.229560 0.054901961237192154
28.637827 -10.747642 -1.228614 0.05098039284348488
28.627007 -10.744052 -1.228626 0.05098039284348488
28.614801 -10.740726 -1.229649 0.05098039284348488
28.602316 -10.736029 -1.229656 0.05098039284348488
28.587336 -10.729658 -1.230654 0.05098039284348488
28.579561 -10.730527 -1.228708 0.05098039284348488
28.572903 -10.733322 -1.227782 0.054901961237192154
28.555143 -10.723904 -1.228755 0.05098039284348488
28.544601 -10.721700 -1.228784 0.05098039284348488
28.521578 -10.707547 -1.231723 0.05098039284348488
28.521292 -10.717031 -1.227850 0.05098039284348488
28.503534 -10.707612 -1.228823 0.05098039284348488
28.491600 -10.705701 -1.227863 0.05098039284348488
28.475786 -10.698775 -1.228858 0.05098039284348488
28.469397 -10.702983 -1.225949 0.05098039284348488
28.444708 -10.687724 -1.228883 0.05098039284348488
28.428057 -10.680259 -1.228876 0.05098039284348488
28.415016 -10.676394 -1.228896 0.05098039284348488
28.391989 -10.662256 -1.230836 0.05098039284348488
28.377554 -10.658683 -1.229868 0.05098039284348488
28.363955 -10.655663 -1.228903 0.05098039284348488
28.353687 -10.654860 -1.227949 0.05098039284348488
28.328159 -10.639060 -1.229880 0.05098039284348488
28.309288 -10.631320 -1.229882 0.05098039284348488
28.293749 -10.625794 -1.229894 0.05098039284348488
28.277651 -10.621116 -1.228920 0.05098039284348488
28.254896 -10.608376 -1.229877 0.05098039284348488
28.238796 -10.603696 -1.228904 0.05098039284348488
28.218821 -10.594004 -1.229885 0.05098039284348488
28.203550 -10.589891 -1.227915 0.05098039284348488
28.181353 -10.579925 -1.228905 0.04313725605607033
28.158045 -10.568018 -1.229876 0.0470588244497776
28.127247 -10.547498 -1.232774 0.0470588244497776
28.109482 -10.541711 -1.231795 0.0470588244497776
28.098095 -10.542598 -1.228869 0.05098039284348488
28.068403 -10.524031 -1.230787 0.054901961237192154
28.042597 -10.510465 -1.231749 0.054901961237192154
28.023161 -10.503584 -1.229765 0.054901961237192154
28.001793 -10.494184 -1.229758 0.05098039284348488
27.970715 -10.475896 -1.231687 0.054901961237192154
27.954889 -10.472615 -1.229731 0.054901961237192154
27.929358 -10.460448 -1.229710 0.0470588244497776
27.904657 -10.448833 -1.229693 0.05098039284348488
27.876072 -10.432220 -1.230630 0.0470588244497776
27.854137 -10.423679 -1.228637 0.05098039284348488
27.820568 -10.403718 -1.231558 0.054901961237192154
27.794195 -10.391010 -1.230535 0.054901961237192154
27.774206 -10.384962 -1.228565 0.05098039284348488
27.738964 -10.363906 -1.230480 0.054901961237192154
27.706495 -10.345911 -1.231421 0.054901961237192154
27.683729 -10.336817 -1.229425 0.05098039284348488
27.648487 -10.315762 -1.231341 0.05098039284348488
27.621563 -10.303886 -1.230332 0.05098039284348488
27.594637 -10.292011 -1.229323 0.05098039284348488
27.562994 -10.274583 -1.229266 0.054901961237192154
27.532465 -10.259094 -1.229229 0.054901961237192154
27.503040 -10.245558 -1.228211 0.054901961237192154
27.460024 -10.218134 -1.230086 0.054901961237192154
27.430599 -10.204598 -1.229068 0.054901961237192154
27.381765 -10.173274 -1.232923 0.054901961237192154
27.359272 -10.165579 -1.229944 0.054901961237192154
27.309599 -10.133715 -1.232796 0.05882352963089943
27.270466 -10.111291 -1.233715 0.05882352963089943
27.235765 -10.093048 -1.232664 0.05882352963089943
27.205503 -10.078971 -1.230644 0.05882352963089943
27.156109 -10.048493 -1.233513 0.05882352963089943
27.114473 -10.024422 -1.233424 0.05882352963089943
27.070343 -9.998676 -1.234326 0.062745101749897
27.032318 -9.978207 -1.234264 0.062745101749897
26.992067 -9.957476 -1.233211 0.062745101749897
26.947931 -9.931744 -1.233113 0.062745101749897
26.899645 -9.903218 -1.235002 0.062745101749897
26.852179 -9.875273 -1.234893 0.062745101749897
26.801113 -9.843700 -1.236756 0.06666667014360428
26.761969 -9.824922 -1.234723 0.06666667014360428
26.714502 -9.796976 -1.234614 0.06666667014360428
26.660385 -9.764576 -1.236483 0.06666667014360428
26.615965 -9.741091 -1.234417 0.07058823853731155
26.552134 -9.699816 -1.237222 0.07058823853731155
26.504946 -9.673256 -1.237130 0.07058823853731155
26.447493 -9.638656 -1.237989 0.07058823853731155
26.402239 -9.614615 -1.235919 0.06666667014360428
26.319542 -9.558352 -1.241630 0.07450980693101883
26.279001 -9.539878 -1.237608 0.07450980693101883
26.219881 -9.504170 -1.238461 0.07450980693101883
26.146055 -9.456254 -1.241234 0.07058823853731155
26.079165 -9.414164 -1.243045 0.07058823853731155
26.023090 -9.382915 -1.241940 0.07450980693101883
25.946215 -9.334171 -1.244718 0.08235294371843338
25.878759 -9.292941 -1.244544 0.07450980693101883
25.809645 -9.250591 -1.245363 0.07058823853731155
25.748575 -9.216022 -1.244242 0.07058823853731155
25.675295 -9.170902 -1.245048 0.0784313753247261
25.606455 -9.129951 -1.244885 0.0784313753247261
25.534832 -9.085968 -1.243697 0.09019608050584793
25.452396 -9.034748 -1.245473 0.0784313753247261
25.377728 -8.989923 -1.245290 0.0784313753247261
25.296953 -8.939823 -1.246072 0.0784313753247261
25.225054 -8.898057 -1.244915 0.0784313753247261
25.138172 -8.842696 -1.245660 0.08627451211214066
25.044912 -8.784281 -1.247401 0.07058823853731155
24.963573 -8.735041 -1.246196 0.07058823853731155
24.868647 -8.675518 -1.247931 0.08235294371843338
24.779539 -8.619897 -1.247685 0.0941176488995552
24.677950 -8.555945 -1.249398 0.07058823853731155
24.584677 -8.497556 -1.249139 0.09019608050584793
24.495291 -8.444166 -1.247924 0.09803921729326248
24.387867 -8.376354 -1.248618 0.08627451211214066
24.275171 -8.303822 -1.250278 0.08235294371843338
24.163582 -8.233241 -1.250958 0.0941176488995552
24.049494 -8.161000 -1.251630 0.08627451211214066
26.988493 -10.591993 -0.780574 0.0117647061124444
26.998709 -10.614628 -0.766815 0.062745101749897
27.002274 -10.632807 -0.755035 0.10196079313755035
26.991127 -10.638791 -0.744174 0.11372549086809158
26.985811 -10.648650 -0.733333 0.14509804546833038
26.974670 -10.654622 -0.723472 0.18431372940540314
26.972681 -10.666708 -0.711641 0.20000000298023224
26.958208 -10.670465 -0.701769 0.21176470816135406
26.950115 -10.677278 -0.690903 0.2078431397676468
26.942575 -10.686875 -0.679070 0.1764705926179886
26.934481 -10.693687 -0.668203 0.1411764770746231
26.920008 -10.697444 -0.658332 0.1411764770746231
26.927446 -10.717031 -0.644548 0.1882352977991104
26.901596 -10.710807 -0.635607 0.25882354378700256
26.900719 -10.724833 -0.623796 0.27843138575553894
26.890406 -10.731372 -0.612938 0.20000000298023224
26.862888 -10.724040 -0.603992 0.1568627506494522
26.861725 -10.736693 -0.591164 0.10980392247438431
26.883875 -10.768476 -0.576461 0.125490203499794
26.879387 -10.778902 -0.564622 0.16470588743686676
26.888491 -10.799597 -0.550844 0.13725490868091583
26.898430 -10.820846 -0.537069 0.16470588743686676
26.889776 -10.828504 -0.525217 0.20392157137393951
26.893057 -10.845310 -0.512420 0.20392157137393951
26.879965 -10.848802 -0.501537 0.20392157137393951
26.871305 -10.856472 -0.488685 0.21960784494876862
26.861546 -10.862177 -0.477812 0.24313725531101227
26.883413 -10.892589 -0.462093 0.19607843458652496
26.959675 -10.964022 -0.442616 0.13333334028720856
26.959345 -10.977228 -0.429791 0.12941177189350128
26.952078 -10.984607 -0.417928 0.11764705926179886
26.933989 -10.984776 -0.407028 0.09803921729326248
26.832647 -10.922291 -0.402758 0.08627451211214066
26.777092 -10.893908 -0.394688 0.03921568766236305
20.785227 -6.454728 -0.901972 0.10980392247438431
20.775963 -6.474205 -0.877278 0.12156862765550613
20.759760 -6.487870 -0.852545 0.12156862765550613
20.737730 -6.497645 -0.828793 0.10980392247438431
20.698778 -6.494939 -0.806969 0.08235294371843338
14.158784 -1.728015 -1.280929 0.03921568766236305
13.656313 -1.400079 -1.278354 0.04313725605607033
13.113604 -1.044148 -1.278630 0.0470588244497776
13.139794 -1.104318 -1.235278 0.03921568766236305
12.568753 -0.729607 -1.232461 0.04313725605607033
11.802045 -0.217462 -1.239903 0.03921568766236305
19.816160 -6.878169 0.307228 0.06666667014360428
19.809368 -6.895755 0.335961 0.12941177189350128
19.818127 -6.922460 0.363659 0.10588234663009644
19.826880 -6.949177 0.392357 0.15294118225574493
19.804260 -6.956260 0.422142 0.14509804546833038
19.778868 -6.960283 0.450952 0.0784313753247261
19.734314 -6.951588 0.480825 0.0117647061124444
19.707535 -6.955890 0.509624 0.003921568859368563
20.045815 -6.858413 -0.302311 0.007843137718737125
20.088190 -6.892057 -0.333526 0.06666667014360428
20.080606 -6.892463 -0.366577 0.125490203499794
20.067200 -6.888981 -0.400608 0.10588234663009644
20.036303 -6.873876 -0.434581 0.03921568766236305
20.020676 -6.870120 -0.468621 0.003921568859368563
10.446077 -0.527028 -1.217445 0.03529411926865578
11.315557 -1.115749 -1.218451 0.0470588244497776
12.175853 -1.698432 -1.215428 0.04313725605607033
12.831613 -2.146190 -1.222745 0.0470588244497776
12.893511 -2.197358 -1.269086 0.04313725605607033
13.568112 -2.656539 -1.270450 0.03921568766236305
14.186636 -3.077249 -1.271614 0.03921568766236305
14.797373 -3.491617 -1.270737 0.03529411926865578
15.392276 -3.895495 -1.267807 0.03921568766236305
15.915571 -4.251729 -1.267642 0.03921568766236305
16.373924 -4.564751 -1.270262 0.03921568766236305
16.876097 -4.905814 -1.266011 0.054901961237192154
17.303343 -5.196995 -1.266514 0.03921568766236305
17.741400 -5.495410 -1.264052 0.0470588244497776
18.159191 -5.779156 -1.261507 0.0470588244497776
18.550613 -6.046562 -1.259892 0.062745101749897
19.058832 -6.389426 -1.244630 0.03921568766236305
19.582010 -6.742320 -1.224419 0.019607843831181526
19.764482 -6.870580 -1.238114 0.09803921729326248
19.910326 -6.974445 -1.254688 0.07450980693101883
20.158257 -7.145179 -1.258583 0.05098039284348488
20.437809 -7.337014 -1.257583 0.07058823853731155
20.712082 -7.524140 -1.256550 0.10588234663009644
20.944178 -7.684384 -1.258393 0.08235294371843338
21.189304 -7.852137 -1.257264 0.0941176488995552
21.422222 -8.012961 -1.257110 0.07450980693101883
21.644873 -8.165743 -1.257907 0.10980392247438431
21.870005 -8.320225 -1.255712 0.08235294371843338
22.063511 -8.453620 -1.257413 0.07058823853731155
22.276983 -8.600353 -1.255180 0.08235294371843338
22.463821 -8.729334 -1.255858 0.07450980693101883
22.648989 -8.857221 -1.255532 0.08627451211214066
22.820833 -8.976251 -1.255161 0.09019608050584793
22.999052 -9.098336 -1.253796 0.10588234663009644
23.162563 -9.211831 -1.253398 0.0941176488995552
23.319422 -9.320885 -1.253978 0.06666667014360428
23.489307 -9.437449 -1.251585 0.08627451211214066
23.645868 -9.545156 -1.249149 0.07450980693101883
23.794939 -9.647867 -1.247688 0.0941176488995552
23.938463 -9.748077 -1.247223 0.10588234663009644
24.064226 -9.835265 -1.247685 0.07058823853731155
24.202475 -9.930768 -1.247188 0.10196079313755035
24.338215 -10.024637 -1.244683 0.07058823853731155
24.464247 -10.113237 -1.243162 0.07058823853731155
24.595543 -10.202951 -1.240626 0.09019608050584793
24.707975 -10.281296 -1.240044 0.08627451211214066
24.830389 -10.366308 -1.237495 0.0784313753247261
24.944481 -10.445772 -1.235919 0.08235294371843338
25.042765 -10.514680 -1.237290 0.08235294371843338
25.154354 -10.592497 -1.234706 0.0784313753247261
25.240980 -10.653656 -1.236038 0.0784313753247261
25.339252 -10.722589 -1.235410 0.07450980693101883
25.433361 -10.788755 -1.234767 0.07450980693101883
25.529966 -10.856597 -1.233133 0.07058823853731155
25.617411 -10.918334 -1.232469 0.07058823853731155
25.695707 -10.973958 -1.233774 0.07058823853731155
25.776497 -11.031255 -1.234088 0.054901961237192154
25.857283 -11.088565 -1.233402 0.06666667014360428
25.937786 -11.144488 -1.232699 0.062745101749897
26.019398 -11.202366 -1.231015 0.062745101749897
26.085203 -11.249686 -1.232279 0.062745101749897
26.161821 -11.304228 -1.231579 0.05882352963089943
26.237329 -11.356831 -1.230860 0.05882352963089943
26.321150 -11.415009 -1.227168 0.05882352963089943
26.366428 -11.449837 -1.231380 0.054901961237192154
26.440266 -11.501346 -1.229655 0.054901961237192154
26.515762 -11.553975 -1.226936 0.054901961237192154
26.574900 -11.596881 -1.227178 0.05098039284348488
26.633202 -11.639233 -1.227418 0.05098039284348488
26.695385 -11.682979 -1.226655 0.05098039284348488
26.752024 -11.724224 -1.226889 0.05098039284348488
26.801170 -11.760473 -1.228098 0.05098039284348488
26.856142 -11.800611 -1.228327 0.054901961237192154
26.912495 -11.840483 -1.227544 0.054901961237192154
26.958309 -11.874517 -1.228743 0.054901961237192154
27.006620 -11.910228 -1.228949 0.05098039284348488
27.057150 -11.946212 -1.229147 0.0470588244497776
27.115156 -11.987217 -1.226370 0.04313725605607033
27.153482 -12.016258 -1.228544 0.04313725605607033
27.208992 -12.055603 -1.225759 0.04313725605607033
27.255634 -12.090204 -1.225960 0.04313725605607033
27.292295 -12.118138 -1.228128 0.04313725605607033
27.332830 -12.147480 -1.228293 0.03921568766236305
27.389999 -12.187945 -1.224514 0.03921568766236305
27.424162 -12.214218 -1.226674 0.04313725605607033
27.468021 -12.245788 -1.225850 0.04313725605607033
27.505505 -12.274301 -1.226021 0.0470588244497776
27.545206 -12.303089 -1.226183 0.04313725605607033
27.584354 -12.332710 -1.226360 0.04313725605607033
27.625717 -12.362618 -1.225528 0.04313725605607033
27.670399 -12.394767 -1.222707 0.04313725605607033
27.693741 -12.413832 -1.225831 0.0470588244497776
27.728443 -12.439298 -1.225978 0.0470588244497776
27.773964 -12.471987 -1.224159 0.0470588244497776
27.799793 -12.492739 -1.225292 0.04313725605607033
27.841148 -12.522660 -1.223460 0.0470588244497776
27.883053 -12.551762 -1.220614 0.0470588244497776
27.907221 -12.571392 -1.222741 0.04313725605607033
27.934715 -12.593251 -1.223879 0.04313725605607033
27.966089 -12.616504 -1.224014 0.04313725605607033
27.987759 -12.634474 -1.226133 0.04313725605607033
28.029936 -12.664975 -1.222304 0.04313725605607033
28.059645 -12.687121 -1.222434 0.03921568766236305
28.078815 -12.703431 -1.224544 0.03921568766236305
28.111845 -12.727818 -1.222685 0.03921568766236305
28.147091 -12.752479 -1.220817 0.03921568766236305
28.167093 -12.769341 -1.222930 0.03921568766236305
28.188759 -12.787325 -1.224049 0.03921568766236305
28.220955 -12.811158 -1.222187 0.03921568766236305
28.240675 -12.826649 -1.223284 0.03921568766236305
28.269543 -12.848253 -1.222411 0.03921568766236305
28.310604 -12.876829 -1.217562 0.03921568766236305
28.313414 -12.883414 -1.222634 0.03921568766236305
28.348656 -12.908089 -1.219767 0.04313725605607033
28.362829 -12.921077 -1.221861 0.04313725605607033
28.392527 -12.943249 -1.219991 0.04313725605607033
28.417233 -12.962087 -1.219104 0.04313725605607033
28.436119 -12.977024 -1.220198 0.04313725605607033
28.451952 -12.991133 -1.221297 0.04313725605607033
